 .4781232   2.436697   2.484625   -.740225  -.0479281
 .2411417   .6545956   1.062113  -.0861561   -.407517
 -.485989   1.410075   1.584211  -1.191027  -.1741356
 1.439485   3.406123   3.039103  -.2635768   .3670202
 2.323849   2.452513   1.744575   1.097593    .707938
 .8243569   2.472935   2.328781  -.4121104   .1441536
 1.313431   3.265136   2.018885  -.3191369   1.246251
 .5438784   .5285369    .493163     .27961   .0353739
 .1653274   1.149197   1.196824  -.4092713   -.047627
 .5675211    2.56482   3.287706   -.714889  -.7228857
 2.610954   2.841908   2.046245       1.19   .7956625
-1.141876    1.10331   2.280685  -1.693531  -1.177375
 1.817013   1.442837   .7765693   1.095594   .6662679
-.4502206   1.468101   2.045209  -1.184271   -.577108
 .8303404   3.083109    3.31012   -.711214  -.2270115
 2.060699    2.60182   2.015776   .7597888   .5860448
-.0597529   2.872902   3.987874  -1.496204  -1.114972
-1.679917  -.5219188   1.898389  -1.418958  -2.420308
 1.705403   1.742839   1.568337   .8339832   .1745026
 1.200012   1.881502   2.284912   .2592614    -.40341
-.6378341  -.2496994   .9120662  -.5129843  -1.161766
 1.011657   2.647567   2.164473  -.3121266   .4830936
 1.438044   2.587733   2.012699   .1441775   .5750337
-.8167985   .5005103   1.845819  -1.067054  -1.345309
 1.415192   2.008594   1.916243    .410895   .0923508
 1.477334   2.698021   2.555537   .1283232   .1424833
 3.437739   5.276093   4.209328   .7996926   1.066766
-.3116887   1.071766   1.689546  -.8475718  -.6177801
-1.742674  -.3984414   1.499289  -1.543453   -1.89773
 .4360588   2.130432   1.578198   -.629157   .5522338
 2.341355   4.421384   3.457799   .1306634   .9635847
 2.014891    2.42115   1.971359   .8043159   .4497907
 1.556717   1.076767   .6245795   1.018334   .4521874
-1.123923   1.441379   2.362493  -1.844612  -.9211145
 -.293806    .619787   .5974796  -.6036995   .0223074
 2.154816   2.300174   1.023084   1.004729   1.277091
 3.130394   3.710239   3.404903   1.275274   .3053359
 3.399915   2.931392   2.146885   1.934219   .7845062
-1.841525  -1.060232  -.0829745  -1.311408  -.9772578
 .5439458   .9180726   1.210069   .0849095  -.2919968
 2.072804   2.595969   2.627402   .7748199  -.0314328
-1.254829  -.2676252   .6942408  -1.121016   -.961866
-.7856725   .8993243   2.006385  -1.235335  -1.107061
  1.96391   3.342648   3.412813   .2925861  -.0701648
 3.169927   3.223062   1.904655   1.558396   1.318406
 .0534297   1.757984   2.825253  -.8255623  -1.067269
 1.301871   3.074508   3.144772  -.2353832  -.0702634
-1.156465   .6020799   1.741929  -1.457505  -1.139849
-.7214166   .0390104   1.099789  -.7409218  -1.060779
 3.442096   3.920593   2.096161     1.4818   1.824432
 1.511184   1.811886   1.841046   .6052409  -.0291601
 .3369656   .9809104   1.010442  -.1534896  -.0295313
 .3184301    .251299   .4169783   .1927806  -.1656794
-1.224152   .7478426   2.001071  -1.598074  -1.253228
 1.142621   2.762796   3.254063   -.238777  -.4912665
 1.620026   2.264884   1.211759   .4875838   1.053125
 .3774011   .1835989   1.089589   .2856016  -.9059898
 1.872378   1.277732     .57836   1.233512   .6993718
 2.904847   2.745055   .9944565   1.532319   1.750599
-1.935082  -.4760587   .6115785  -1.697052  -1.087637
 4.202429   3.151375    1.36343   2.626741   1.787945
 2.104523   2.342465   .9388824   .9332902   1.403583
 1.470565   2.495415   2.346468   .2228574   .1489471
-1.110732   1.275642   1.811362  -1.748553  -.5357199
 1.266448   1.420499   1.277037   .5561984   .1434627
  2.16586   3.205192   2.964373   .5632641   .2408191
 .9115192   2.831252   2.784978  -.5041066   .0462736
 2.172267   3.000737   1.881418   .6718982    1.11932
  .227682   1.644414   1.038218   -.594525   .6061957
-.0150694   2.095128   3.988997  -1.062633  -1.893869
 .6766842   1.533701   .7775798  -.0901664   .7561214
 .2217189   1.407809   1.363259  -.4821856   .0445496
 1.349949   2.197113   1.284571   .2513922   .9125419
 2.602579   2.812054   2.011548   1.196551   .8005066
 1.979011   3.885781   4.077849   .0361199  -.1920675
-.8171315  -.4514926  -.2411594  -.5913852  -.2103332
-.1428319  -.0674492   1.102864  -.1091073  -1.170313
-1.237592    .051088    1.03138  -1.263136  -.9802917
   .90546   2.764614   3.452074  -.4768468  -.6874601
 1.105612   1.703987   2.185175   .2536184  -.4811887
-.6296546   1.032131   2.019153   -1.14572   -.987022
-.6725143   1.190293   2.945496  -1.267661  -1.755203
 2.184001   2.238039   .7044491   1.064982    1.53359
 3.138946   3.600025   2.043479   1.338934   1.556546
 .4859279   .0529703    .603847   .4594427  -.5508767
 3.665156   4.018153   2.685216    1.65608   1.332937
 2.928051   4.368268   3.489799   .7439176   .8784685
-1.105188  -.0968595   1.441934  -1.056758  -1.538793
 2.541728   3.515747   2.714222   .7838541   .8015248
 2.275945   3.908984   3.060725   .3214528   .8482586
 .8813692   4.184524   3.446534  -1.210893   .7379906
 1.154332   .9440228   1.238637   .6823202  -.2946141
-.2931924   .2006655   .5179711  -.3935252  -.3173056
 1.766386   1.915722   1.449009   .8085248   .4667129
 2.416756   3.758387   2.490092   .5375624   1.268295
-.0092587   1.450649   1.658748   -.734583  -.2080997
 1.831634   2.629095   2.152029   .5170869   .4770664
 1.253844   1.962073   2.052406   .2728071  -.0903326
 3.288558   3.449397   2.700039   1.563859   .7493584
-1.388216   .4796669   1.795262   -1.62805  -1.315595
-.3194494    .961203   2.387499  -.8000509  -1.426296
 1.174873   2.756832   2.272402  -.2035426   .4844305
  2.53982   2.902215   2.184919   1.088712   .7172955
 3.778242   3.551421   1.728772   2.002532   1.822649
  1.75469   2.496828   2.539217   .5062756  -.0423893
 1.819578   3.245435   2.126155   .1968605    1.11928
-.5775099   .3750603   1.556122    -.76504  -1.181062
-1.933816  -.2402047   1.065674  -1.813714  -1.305878
-.3526121   2.202789   3.197417  -1.454007  -.9946276
-.8949752   .5240386   1.573693  -1.156994  -1.049655
 5.879332   5.813071   3.383218   2.972796   2.429854
 .7149665   2.640041   2.792177  -.6050538   -.152136
 .0617185   2.378055   2.900312  -1.127309  -.5222569
 .5429492   .6635519   .5806198   .2111732   .0829321
 1.368591   2.497754   3.285244   .1197137  -.7874896
-.2064165  -.4702254  -.0506591   .0286962  -.4195663
 1.205158   1.873215   2.142558   .2685501  -.2693426
 .1193887    2.39956   2.650272  -1.080391  -.2507126
 1.217163   1.611981   1.510518   .4111724    .101463
-.6145715   1.612927   2.954078  -1.421035  -1.341151
 .8894867    1.43182   1.653849   .1735767  -.2220291
 2.218159    3.17572   3.118622   .6302987   .0570975
 2.020314   2.990286   2.207804   .5251707   .7824817
 .9650115   1.734091   2.366881    .097966  -.6327902
 -.920718  -.1513374   1.138028  -.8450493  -1.289365
 .0363736   2.309521   2.621297  -1.118387  -.3117758
 1.497827   2.336986   1.694622   .3293341   .6423635
-.7719939   .3645601   2.086874  -.9542739  -1.722314
 3.322098   3.206361   1.476303   1.718918   1.730058
 .4024945   .9881806   2.098534  -.0915959  -1.110353
 2.057076   2.539919   .9872605   .7871167   1.552658
 2.610599   2.368185   1.904962   1.426506   .4632232
 2.569841   3.177063   3.350688    .981309  -.1736243
 .8054261   1.781448   1.649719  -.0852981   .1317293
 1.487551   2.830692   2.682809   .0722051   .1478826
-2.394481  -.2428712   1.842002  -2.273045  -2.084873
 .9549751   1.043663   1.522543   .4331435  -.4788794
 2.297769   2.822592   2.664155   .8864729   .1584365
 3.764147   3.503028   2.117166   2.012633   1.385862
 2.341142    3.36208   2.163634   .6601023   1.198446
 .9783564    1.22965  -.0065379   .3635314   1.236188
 .9405444   .5672714   .3066926   .6569087   .2605787
 1.581341   2.291805   2.224758   .4354385   .0670469
 2.666904    5.06077   5.232666   .1365191  -.1718967
 1.036382   2.035289   1.811971   .0187375   .2233172
 .9354309   1.430487   1.351133   .2201873   .0793542
 1.419945   .8559775   .6697956   .9919564    .186182
 3.862541   4.227281   2.053391     1.7489    2.17389
-.5431662   .5386697   1.206125   -.812501  -.6674554
 .0295084   1.534644   2.169013  -.7378135  -.6343693
-1.768504  -1.331543  -.0762044  -1.102733  -1.255339
  1.24052   3.631643   3.235781  -.5753019   .3958622
 .4747081     1.7904   1.541006  -.4204921   .2493941
 3.627062   4.548779   2.341904   1.352672   2.206875
 2.298753   3.677116   2.827765   .4601955   .8493512
 .7662284   2.175113   1.725695  -.3213283   .4494187
 1.834268   3.182526   2.704977   .2430046   .4775494
 1.704566   2.921358   2.628475   .2438869   .2928825
 1.802678   4.000465   2.885553  -.1975541   1.114912
 2.613114   3.357828   2.345342   .9341998   1.012486
 1.077949   1.753024   1.143174   .2014369     .60985
 2.032637   3.712774   3.629865   .1762495   .0829088
 3.218249   2.743153   1.378602   1.846673    1.36455
 .5642726   1.722385   1.281826  -.2969197   .4405583
 -1.18838   .4527501   1.771415  -1.414755  -1.318665
 .4101092   1.683448   2.036965   -.431615  -.3535166
-.1769431   1.478341   1.762558  -.9161135  -.2842174
-.2155716   2.027727   3.357402  -1.229435  -1.329675
 2.916126    5.15781    4.84301   .3372212   .3147998
 1.325682   2.971236   2.553855  -.1599365   .4173808
 -.421195   1.086862   2.449869  -.9646263  -1.363007
 .6623373   2.061305   2.817386  -.3683152  -.7560809
 1.199294    3.05824   3.599653  -.3298263   -.541413
  1.00679   3.213593   3.573173  -.6000069  -.3595791
   1.4053   2.505582    2.27729   .1525093   .2282919
 1.415069   1.945763    1.41238   .4421879   .5333827
 2.255876   2.663087    2.18662   .9243321   .4764672
 .4144849   1.237324   1.221446  -.2041774   .0158782
 1.289689   3.748171   4.455055  -.5843962   -.706884
  .247624   .7491806   .9005993  -.1269663  -.1514187
 .5763631   .9968032   1.402409   .0779615  -.4056063
 1.657371   2.340654   1.441107   .4870442   .8995479
  1.85084   3.645788   3.375759   .0279462   .2700289
 2.253097   2.448673    1.56635   1.028761    .882323
 1.143794   2.226967   1.975433   .0303107   .2515333
-.2663063  -.2253871   .8253565  -.1536128  -1.050744
-.4735616   1.241837   1.926509   -1.09448  -.6846718
 .1971796   .7478045   2.057746  -.1767227  -1.309941
 .9468325   2.069427   2.244094  -.0878808  -.1746675
 .5210313   1.858903   2.420024  -.4084203  -.5611207
 1.680483   2.412834   1.339922   .4740659   1.072912
 .6700069   1.687209   2.695672  -.1735978  -1.008463
  .076429   2.222885    2.62534  -1.035013  -.4024555
-.0103171   .2671927   .9523811  -.1439134  -.6851884
 3.889701   4.285983    3.30098    1.74671   .9850029
 2.157209   4.213533   4.559083   .0504421   -.345549
 .4268736   2.926807   3.993152   -1.03653  -1.066346
-.1481955   .8033202   1.306209  -.5498556  -.5028887
-.0750941   2.125922   3.202112  -1.138055   -1.07619
  1.59251   2.433258   2.452198   .3758817  -.0189401
 .8384048   3.848368    3.77231  -1.085779   .0760585
 2.793101   2.979109   1.487159   1.303547    1.49195
 2.098319   2.084574   1.284601   1.056032   .7999734
-.5106894   .0920833    .585313  -.5567311  -.4932297
  1.89732    4.25854   4.058016  -.2319506   .2005239
 1.074764   1.539577   1.527983   .3049752   .0115944
-1.863639    .209573   1.428605  -1.968426  -1.219032
  2.89842   2.687595   1.559293   1.554622   1.128302
 4.633734   5.360218   3.645383   1.953625   1.714835
 1.593374   4.573993   3.875763   -.693623   .6982304
 -1.69642     .50176   2.722121    -1.9473  -2.220361
 .9603773   .7271991   1.155622   .5967778  -.4284225
 1.879874   3.842943   3.474544   -.041597    .368399
 2.675601   2.777787   1.958102   1.286708   .8196845
 2.607738   4.021041   2.598004   .5972179   1.423037
 2.008932   1.153582   .3891738   1.432141   .7644083
-.1624101   .7369699   .8543822  -.5308951  -.1174122
 .2394662   1.143011   .9165577  -.3320392   .2264531
 .3785743   2.519081   2.380743  -.8809663   .1383381
 .9162934   2.446753   3.376834  -.3070831  -.9300814
 2.293294   3.907971   2.926452   .3393088   .9815189
 .0141728    .698418   2.040012  -.3350362  -1.341594
 .0510619   .3894331   .6875331  -.1436547  -.2981001
  2.80065   4.473673   3.588006   .5638138   .8856673
 .5106983   1.651492   1.410715  -.3150476   .2407764
-.5754383  -.1905962   .4596397  -.4801402  -.6502359
  2.84585   3.387855   2.534077   1.151923   .8537776
 .8382058   1.364509    1.07757   .1559512   .2869395
-.9184891   .8858899   1.843232  -1.361434  -.9573418
 .8660851   2.979386   2.708944  -.6236081   .2704423
  .773132   1.708678   2.809174  -.0812068  -1.100496
 2.368657   3.059033   2.381413   .8391403   .6776204
 1.547873   2.245663   2.588429   .4250412  -.3427652
 .5545024   2.077714   2.548425  -.4843546  -.4707107
 2.080308   2.245584   1.015253    .957516   1.230331
 1.996359   2.558949   2.336044   .7168841   .2229047
 2.738507   3.861353   3.343745   .8078303   .5176081
 4.732347   6.161188   3.507618   1.651753   2.653569
 .4239236   2.167077   2.930818  -.6596147  -.7637418
-.0770827   .6580468   .8161158  -.4061061  -.1580689
-1.505805  -.0375427   1.273795  -1.487034  -1.311338
 1.589472   3.380959   3.288046  -.1010079    .092913
 3.063183   3.294538   3.019005   1.415914   .2755337
  4.00916   4.392243   2.402199   1.813038   1.990044
 1.160863   2.989216   2.276888  -.3337447   .7123275
-.3514733   1.281322   2.268346  -.9921343  -.9870241
-.6871563   .7792106   1.677841  -1.076762  -.8986301
 3.773542   4.634171   3.054376   1.456457   1.579794
 1.498993   2.617629   2.522185   .1901787   .0954439
 2.706905   3.059149   2.547545    1.17733   .5116039
 .3244849   1.434838   2.042641  -.3929339  -.6078036
 2.125034   2.660894   2.244315   .7945868   .4165793
 1.908951   2.914127    2.04733   .4518876   .8667974
-.2776023   1.007867   1.825149  -.7815359  -.8172817
 1.501543   1.992482   1.770751   .5053014   .2217316
 1.816457   2.152695   1.210982    .740109   .9417129
 1.380622   2.632548   2.462682   .0643478   .1698653
 2.217295   2.832368   2.281822    .801111   .5505455
 -1.03378  -.5628643     1.6806  -.7523482  -2.243464
 2.563078   3.394825   2.167959   .8656661   1.226866
 1.323528   1.703341   1.036818   .4718578   .6665227
-.0604765   2.035572   2.786737  -1.078263  -.7511644
 2.281611   2.203889   2.222935   1.179666  -.0190462
 .4872079   1.547337   2.180962  -.2864606   -.633625
-.8857892   .1550711   .9460834  -.9633247  -.7910122
 .9921156   2.964842   1.829031  -.4903056   1.135811
-1.640355  -.2064245   1.203165  -1.537143  -1.409589
 .4542366   1.410343   2.033284  -.2509351  -.6229408
 1.165689   2.961929   3.086527   -.315275  -.1245983
 .3687028   2.292081   3.569478  -.7773378  -1.277396
 2.163494   1.877153   1.258467   1.224917   .6186858
 1.383862   2.980483   2.871096  -.1063789   .1093872
 2.155103   3.737128   3.520492   .2865393   .2166353
 .5578247   .5380346   .7336368   .2888074  -.1956022
 .3234951   2.415806   3.352176   -.884408  -.9363697
-.4463891   .3706692   1.521024  -.6317237  -1.150354
-1.009867  -.4401103   1.449057  -.7898121  -1.889167
  1.90485   2.778034   2.356324   .5158326   .4217097
-1.254964  -.0899365   1.647105  -1.209996  -1.737041
-1.067164   .2881292   1.723889  -1.211228   -1.43576
 .6178753   2.236312   2.889345  -.5002809  -.6530323
-1.163412   .7401644   2.697707  -1.533494  -1.957543
 .4860426   2.398839    2.16432  -.7133772   .2345198
 .4118208   2.645938   3.234392  -.9111483  -.5884536
 1.686609   2.903598   2.823528   .2348103   .0800697
 .7694034   2.230943   2.165775   -.346068   .0651675
-.7085485   .3628404   1.724934  -.8899688  -1.362094
 .7996989   1.255194   .8318666    .172102   .4233271
 .9362539   2.158678   2.370303  -.1430849  -.2116255
 .7426808   .7155136   .2132713    .384924   .5022423
 2.023769   4.334879   4.769821  -.1436706  -.4349411
   2.7819   1.324111  -.0061632   2.119845   1.330275
 2.910381   3.725821   3.219484   1.047471   .5063369
 .0610912   1.116735   1.767349  -.4972763  -.6506136
 2.083637   2.169236   1.993869   .9990193   .1753664
  3.31482   3.579005    1.67356   1.525318   1.905445
-.4327349   .4906459   .6456299  -.6780578   -.154984
-.0080699   .6996768   1.896594  -.3579083  -1.196918
-.0282345    1.73696   1.016679  -.8967147   .7202816
 4.510423    5.32763   3.136025   1.846608   2.191606
  2.04169   2.078035   1.212406   1.002673   .8656288
  .564085   1.648285   1.666596  -.2600574  -.0183113
 .4013178   2.396374   2.977696  -.7968695  -.5813215
 .1626163   2.238273   2.795901  -.9565203  -.5576283
   .55615   1.387553   2.090016  -.1376267  -.7024624
 1.552116   2.706365   1.521677   .1989338   1.184688
-.9407831   .2221234   .8641723  -1.051845  -.6420489
  .004302   1.266819   2.186879  -.6291075    -.92006
 .1955077   .7173665    1.17287  -.1631755  -.4555037
-1.649828  -.6979334   .6348161  -1.300861  -1.332749
 .6839671   .4015006   .3272338   .4832168   .0742668
 2.713931    2.36451   1.354014   1.531676   1.010496
 1.923491   3.470206   2.691776   .1883876   .7784307
 2.081061   2.273241   .9982054   .9444408   1.275035
 2.559286   3.035986   2.592049   1.041293   .4439375
-.1970701    .740537   1.777675  -.5673386  -1.037138
 .9753725   3.842819   3.852661   -.946037  -.0098422
 1.977021   2.712934   2.296354   .6205533   .4165808
 .7633607   1.811006   1.792402  -.1421421   .0186037
 1.184735   2.616616   2.652892  -.1235732  -.0362763
 .7957711   1.939805   1.985465  -.1741312  -.0456599
 1.555316   1.544205   1.101994   .7832131   .4422113
-.3781464   .7132843   1.753193  -.7347885  -1.039908
 2.048961   1.407604   .5204167   1.345159   .8871868
 .9998954   2.482929   2.336175  -.2415692   .1467543
 .3909998    1.96398   2.629931  -.5909904   -.665951
 1.403459   .9099394   .8683687   .9484888   .0415707
 1.134568   2.018824   2.841013   .1251557  -.8221889
 .5460192    .203299   .3859689   .4443697  -.1826698
 2.781194   3.443725    2.72682   1.059332   .7169049
 .5317643   2.149075    1.90716  -.5427732   .2419151
 2.296915    1.52849   .6316362    1.53267   .8968537
 .5512683   1.657449   1.620679  -.2774563   .0367704
 .0344118   2.103122   2.607138  -1.017149   -.504016
 2.258763   3.701242   3.084729   .4081416   .6165132
 2.125252   2.647794   1.340922   .8013549   1.306872
 1.128139   1.442098   1.803183   .4070902  -.3610848
 2.093902   3.628524   2.566694   .2796398    1.06183
-.0060685   1.254658   1.748043  -.6333976  -.4933849
-.8401041  -.4841576  -.0012838  -.5980253  -.4828737
 1.564704   2.818934   2.619272   .1552364   .1996619
-1.187877   .3704534   .5866967  -1.373103  -.2162434
 2.995898   3.101259   2.505636   1.445269   .5956222
-.3344861   .9767174   2.006849  -.8228447  -1.030131
-.2514195   2.014871   4.084881  -1.258855   -2.07001
 1.490031   2.639964   2.649434   .1700484  -.0094698
-1.097893   1.433607   1.624904  -1.814697  -.1912968
 3.823934   3.239276   2.024953   2.204296   1.214323
 3.780687   3.404897   1.212749   2.078238   2.192148
-.7895738   1.189457   2.161404  -1.384302  -.9719468
 2.189837   3.422516   2.462955   .4785784   .9595612
 3.380831    3.49881   2.054848   1.631426   1.443962
-.2882752   1.630507   2.886031  -1.103529  -1.255524
-.4816639   1.435571   1.868297  -1.199449  -.4327257
 2.505567   3.226042   2.644294   .8925457   .5817478
 .6675253    2.33241    4.03538  -.4986798   -1.70297
-.9211383   .4800637   2.022128   -1.16117  -1.542065
-2.815186  -1.582227   .7370274  -2.024073  -2.319254
 .6906602    1.19322   .9516224     .09405    .241598
 .3444815   1.452963    2.58718  -.3819997  -1.134218
 2.552807   1.778072   .0657574   1.663771   1.712315
  .278138   .0436699   .5582603    .256303  -.5145904
 1.494954   2.757946   2.300103    .115981   .4578428
 1.699096    2.47266   3.039811   .4627658  -.5671518
 .0989578   1.673078   3.251115  -.7375814  -1.578037
 .8551426   .7238817  -.3309666   .4932017   1.054848
-2.410312   .2013774   2.540214  -2.511001  -2.338836
 1.108907   1.899697   1.834282   .1590584   .0654151
-.2943387   1.513694    2.49346  -1.051186   -.979766
  1.70124   2.252743   1.478264   .5748688   .7744793
-.3479116   .7183232    1.66196  -.7070732  -.9436368
  1.54011   3.140691   2.917935  -.0302352   .2227554
 .2683457   1.412742   1.454013  -.4380251  -.0412716
 .4632493   1.295068   2.621113  -.1842846  -1.326045
-1.282916   .4371958   2.979404  -1.501514  -2.542208
 2.020932   1.864391   1.081822   1.088737   .7825686
-.1830659   .4320974    .495893  -.3991146  -.0637956
 .5301897   .3584985   .9220448   .3509405  -.5635463
 .0413956   1.251496   1.470082  -.5843526  -.2185853
 1.104665   2.709618   2.581789  -.2501435    .127829
-.8732579   1.577955   3.273523  -1.662236  -1.695568
  .588292   1.437928    2.53098  -.1306719  -1.093052
 4.890217   5.649218   3.123765   2.065608   2.525453
 1.411865   1.921541   1.248296   .4510944   .6732445
 .8024814   1.427823   1.616371   .0885698  -.1885475
   1.3463   1.750184   .6715432   .4712079    1.07864
-3.047695  -2.264991   .5264756  -1.915199  -2.791467
-1.170188  -.4354156   1.475715    -.95248   -1.91113
 -.989504   .4415081   1.943801  -1.210258  -1.502293
-.6798708   1.294565   3.002105  -1.327153   -1.70754
-1.210556  -.3062211   .2179386  -1.057446  -.5241597
 1.947075   2.790324   2.234298   .5519127   .5560254
 3.609904   3.955249   2.560288    1.63228   1.394961
 1.385136   2.949715    1.93059  -.0897211   1.019125
-.2075454   1.645369   1.696267   -1.03023  -.0508978
 2.336642    2.59468   1.911046   1.039303   .6836333
 .6290115   1.997999   1.641325  -.3699882   .3566746
   1.3503   3.002912   2.368259  -.1511556   .6346532
 1.273155   1.585488   1.204206    .480411   .3812822
 .6458365   2.827471   3.370401  -.7678989  -.5429298
 1.913007   2.765625   2.592941   .5301945   .1726843
 2.975238   3.579196   3.005868    1.18564   .5733283
-1.376745  -.3396443   .8286631  -1.206922  -1.168307
  -.94822  -.0749511   1.984229  -.9107445   -2.05918
-.5942579    1.27047   2.430387  -1.229493  -1.159917
 4.028855    3.31467   1.250181    2.37152    2.06449
 2.336705   2.808816   2.706086   .9322971   .1027295
-.5587498   2.497085   3.973358  -1.807292  -1.476273
-1.046767   .1673134   1.062163  -1.130423  -.8948497
 1.463339    1.91973   1.134505   .5034739   .7852253
 1.038506   1.240116   1.543768   .4184477  -.3036521
 .1087816   .9848543   1.216276  -.3836456  -.2314217
-.0520058   2.053868   2.422133   -1.07894  -.3682646
 .1934593   1.943015   1.665644  -.7780483   .2773713
 2.329204   3.690789   2.856186   .4838089   .8346035
 -.233257   1.508089   3.120113  -.9873016  -1.612024
 -.023738   .2738956   1.030146  -.1606858  -.7562509
 3.098097   3.118942   .9516013   1.538626   2.167341
-3.735062  -2.149835    .760096  -2.660145  -2.909931
 2.575498   3.501386   3.379698    .824805   .1216881
 1.132143   2.541342    2.64633  -.1385283  -.1049878
 .0736139    .396994   .6739967  -.1248831  -.2770027
 3.011981   4.080391   2.552707   .9717854   1.527684
-.6866051   1.027916   2.911687  -1.200563   -1.88377
-.7754453   -.541124   .6804561  -.5048833   -1.22158
-2.038551  -.5114651   1.445428  -1.782818  -1.956893
 .1037889   1.409487   2.575582  -.6009548  -1.166095
 .5846481   1.815809   .9521708  -.3232563   .8636379
 1.072721   3.018199   3.129869  -.4363788  -.1116695
  .600494   2.504419   2.302779  -.6517153   .2016394
-1.837978   .4904256   2.311094  -2.083191  -1.820668
 3.700406   3.465123   2.585122   1.967845   .8800006
 1.245382   2.666629   2.711416   -.087932   -.044788
 2.157385   2.675349   2.852769   .8197104  -.1774199
 2.149354   2.766048   1.934516   .7663301   .8315323
-.7622491   .4633076   1.134829  -.9939029   -.671521
 3.041641   3.249043   1.861049   1.417119   1.387994
 2.133165   3.075307   2.729856   .5955114   .3454517
 .3579332   2.420038   3.252299  -.8520856  -.8322608
  .674343   1.002206   .8150998   .1732398   .1871065
 .9451205   2.283939   2.474847  -.1968488  -.1909081
 1.482113   2.440295   2.505021   .2619655  -.0647264
-.1684202   2.155658   2.005752  -1.246249   .1499059
 1.231863   1.156471   .5065169   .6536277   .6499541
 2.544108   3.025837   2.726058   1.031189   .2997797
 .0385361   .8407787   1.280888  -.3818532  -.4401092
 .9920132   2.361342   2.497371  -.1886579  -.1360291
 .6635218   1.895972   2.206064  -.2844642  -.3100919
 .7048033   3.026451    3.20001   -.808422  -.1735595
 2.267513   3.241083   2.847039    .646971   .3940447
  1.33543   2.607577   2.126442    .031642   .4811342
 .5540563   1.885111   1.986378  -.3884992  -.1012672
 3.249857   3.253713   1.580747      1.623   1.672966
 1.386421   3.384103   3.102442  -.3056303   .2816615
 3.585819   2.759549   .9562652   2.206045   1.803284
  1.13017   2.583563   2.412421   -.161612   .1711419
 .7541201   2.190857    2.54163  -.3413086  -.3507728
 2.794508   4.417487   3.113258   .5857642   1.304229
 .6721094   2.365801   2.287317  -.5107909   .0784838
 .6933534   2.809175   3.769271  -.7112344   -.960096
-.8524103  -.8101329     .29152  -.4473439  -1.101653
-.7100399   .8638743   1.767131  -1.141977  -.9032567
 1.632353   1.801136   1.751536   .7317855   .0495997
 3.831546    5.00851   3.930043   1.327291   1.078467
 1.432293   2.937494   2.311969  -.0364538   .6255248
 4.197751    4.46563   2.653155   1.964936   1.812475
-.8810173   .7061689   1.000183  -1.234102  -.2940139
 1.717265   3.448412   2.223609  -.0069414   1.224803
 1.991343   2.613945   2.314674   .6843701   .2992712
 2.206072   4.212243   3.169311   .0999509   1.042932
  2.36493   2.734357   1.089777   .9977518    1.64458
 1.884439   2.065903   1.220011    .851487   .8458917
 1.689713   1.780468   1.056855   .7994798   .7236125
 2.267334   2.364836   1.998566   1.084917   .3662697
 2.544158   2.971305   2.180728   1.058505   .7905768
 2.626329   3.501939   3.275439   .8753602   .2264993
  .643074   1.774146   1.759783   -.243999   .0143636
 1.258378   1.840158   2.145419   .3382989  -.3052602
-.1472198   1.176475   1.792985  -.7354574  -.6165101
 .7092304   1.060048    .944683   .1792064   .1153649
 -.226506   1.514913   2.445647  -.9839623  -.9307339
 2.302782   2.887518   2.876434   .8590232   .0110847
 2.559875   3.434873   3.292114   .8424391   .1427587
-.3253485   1.171429   1.653749  -.9110628  -.4823202
 1.927962   2.916902   1.865571   .4695108   1.051332
 .2831684    2.27099   1.891669  -.8523268   .3793209
 .8372129   1.605042   1.873495   .0346919   -.268453
 .3082176   1.692418   2.340103  -.5379913  -.6476856
 1.712389   2.361864   1.788078   .5314573   .5737855
 4.586411   4.517306   2.396295   2.327759   2.121011
 2.167522   1.619977   .9456971   1.357533   .6742803
 1.494629   .7585471  -.8942605   1.115355   1.652808
 3.354955   2.931458   1.370593   1.889226   1.560866
 .5079802   1.702078   1.685959  -.3430586   .0161191
 .5569143   .8530254   .7668201   .1304016   .0862054
-.7477691   .1074072   1.381093  -.8014727  -1.273686
 .8762592   2.257087   2.387645  -.2522841  -.1305583
 .5439731   2.802679   3.602589  -.8573664  -.7999101
-.8482487   .1986918   .9246341  -.9475946  -.7259423
 1.916442   2.073525   1.476509   .8796792   .5970162
 2.476977   3.964322   3.645554   .4948156   .3187685
-.0248033   3.173958   3.839749  -1.611782  -.6657906
 .4958588    .329374  -.3214328   .3311718   .6508068
 1.068023   1.847892   1.781223   .1440772   .0666686
 .8526511    2.53006   3.367831  -.4123789  -.8377708
 1.199487   2.739572   2.064904  -.1702994   .6746679
 .9952154   1.887494   1.215781   .0514683   .6717128
-.8033569   .1207532   .9113741  -.8637335  -.7906209
 1.348756   2.758224   2.601459  -.0303562   .1567657
 1.485779   .6376171   .0621524   1.166971   .5754647
-1.124679   1.620087   3.560121  -1.934722  -1.940034
-.8844265  -.3871055   .5336399  -.6908738  -.9207454
 2.196253   2.077182   .6924656   1.157663   1.384716
-.5605224   .8285941   1.756635  -.9748194  -.9280406
 .4769054   .5010023   .2875283   .2264043    .213474
 2.258925   2.902183   1.422799   .8078336   1.479383
  1.17661   2.066994   1.603223   .1431134   .4637708
-1.458891   .4465631   1.679588  -1.682173  -1.233025
 2.616661   4.308162   3.489682   .4625803   .8184797
 .3682949   1.433491   1.829431  -.3484506  -.3959405
-.1720095   1.313814   2.078668  -.8289166  -.7648542
  .447422   2.431579   2.011987  -.7683676   .4195921
-.8115849   .1146857   1.609938  -.8689277  -1.495253
-.0615672   1.877784   3.509834  -1.000459  -1.632049
-.9682009   .9805958   3.005841  -1.458499  -2.025245
 .4857923    1.06463   .5719338  -.0465229   .4926966
 1.419469   .7603351   1.073195   1.039301  -.3128598
 3.348714   3.131057   .7750084   1.783186   2.356048
 .5521475   1.719996   2.178878  -.3078504  -.4588826
 1.352312   2.461796   3.006872   .1214142  -.5450761
 2.294153   2.526951   1.917567   1.030678   .6093839
-.0133812   1.239074    1.85456  -.6329182  -.6154864
 .3849687    .997322   .9644651  -.1136922   .0328568
 4.008046   4.925442   3.929518   1.545325   .9959244
 1.303933   2.784728   2.261533  -.0884305   .5231944
 2.715637   2.559039   1.894337   1.436117   .6647024
-.6573859   .6483308   2.146195  -.9815513  -1.497865
 1.591334   3.430462   2.985951  -.1238972   .4445112
 .4232783   1.242985   .9664153  -.1982141   .2765695
 1.199824   3.031394   3.321369  -.3158728  -.2899755
 -.074423   .3929365   1.043305  -.2708913  -.6503682
  .349795   1.906394   1.218852  -.6034019   .6875417
 .9847872   1.641339   .9900736   .1641176   .6512655
 1.586168   3.116959   3.021594   .0276885   .0953648
  1.79823   3.009132   2.879689   .2936639   .1294433
 .9863229   1.692222     1.4179    .140212   .2743218
-2.238575  -.9831725   -.230933  -1.746989  -.7522395
  3.43265   4.874605   4.822526   .9953469   .0520787
-.8967413   .3688375   1.739109   -1.08116  -1.370271
-1.968734  -.2020841   1.676017  -1.867692  -1.878101
 1.972194   3.803284   3.273105   .0705524    .530179
 .0862167   2.633711   3.094297  -1.230639  -.4605859
 4.820366    4.64398   2.825512   2.498376   1.818467
 1.342955   3.671894   3.654187  -.4929924   .0177071
 .1621553   .5934901   .9117261  -.1345898  -.3182359
 1.348091   1.893511   1.728121    .401336   .1653893
 2.597189   2.597424   1.208102   1.298477   1.389321
 .0116208   2.235244   3.147829  -1.106001  -.9125853
  .951173    3.47635   2.517862  -.7870019   .9584881
 1.248727   1.508154   .8836933   .4946499   .6244609
 .0909337   1.025907    1.26221  -.4220199  -.2363026
-.1405724   1.547381   2.830765   -.914263  -1.283384
-1.003506   .7261356   2.693524  -1.366574  -1.967388
-.7608643   .7793278   1.163971  -1.150528  -.3846432
-.8337775   1.039816   2.308096  -1.353685   -1.26828
 2.271285   3.792382   2.507089   .3750941   1.285292
  2.23191   2.367722   1.432052   1.048049   .9356698
-.0690034   1.636332    2.32607  -.8871692   -.689738
 .2461253   2.322546   1.940361  -.9151478   .3821852
 3.304994   4.026319   3.019356   1.291834   1.006963
 2.543768    2.02824   .2321419   1.529648   1.796098
  .739702   1.925432   2.059356   -.223014  -.1339239
 4.347153   2.680685    .643339   3.006811   2.037346
 .5877917   .9212494   .8306805    .127167    .090569
-.1813428   1.110367   2.356286  -.7365261  -1.245919
 2.385359   3.432519   2.163409   .6690997    1.26911
-.7158523   1.485215   1.947921   -1.45846  -.4627058
  -2.0369  -1.583691  -.0493963  -1.245054  -1.534294
 1.712779   .1842881   .0538479   1.620635   .1304402
  3.10137   3.190258   3.267045   1.506241  -.0767873
-1.469409   .8862885   2.545538  -1.912554   -1.65925
 .2543687   .3224307   1.462755   .0931533  -1.140324
 2.340917   4.009933   3.427273   .3359508   .5826597
-.0764081   1.763532   2.916786   -.958174  -1.153254
-.1257373    .352026   1.352984  -.3017503  -1.000958
 1.474499   3.044893   1.637079  -.0479479   1.407814
 3.358229    3.12068   2.232052   1.797889   .8886283
 2.379484   2.254352    .677765   1.252308   1.576587
 3.111846   3.523419   1.700416   1.350137   1.823003
 .8467556   1.645128   1.704269   .0241915  -.0591406
-2.371962  -1.190506   .1215297  -1.776709  -1.312035
 2.045564   3.230291   2.811591   .4304189   .4187001
  -1.2058  -1.094018   .1187033  -.6587905  -1.212721
 2.915899   2.450642   .8292912   1.690578   1.621351
 2.193945   3.565102   3.107036   .4113939   .4580657
 .4372186    1.28385   1.348508  -.2047066  -.0646577
-.2282974   .1251993   .4247434  -.2908971  -.2995441
 1.132227   3.276907   2.042274  -.5062262   1.234633
 2.917222   3.394133    1.96414   1.220155   1.429994
 .4613448   2.889807   3.878963  -.9835587  -.9891557
 1.709428   1.312809    1.58766   1.053023   -.274851
 .9829198   2.335703   3.135446  -.1849319  -.7997426
 .2011913   2.420946    2.66903  -1.009282  -.2480842
-.1264317   2.221168   2.817221  -1.237016  -.5960529
 2.462712   2.799589    2.75112   1.062918   .0484694
 .4085311   1.289021   1.321974  -.2359796  -.0329522
-.5325977   .7476726   2.514941  -.9064339  -1.767268
 1.686118    3.26969   3.309108   .0512723  -.0394177
-.6071173   1.016463   1.437018  -1.115349  -.4205557
  4.11146   4.401319   2.055965   1.910801   2.345354
 .1230244   1.268352   1.690068  -.5111516  -.4217159
-1.483819   -.651696    .971059  -1.157971  -1.622755
 .5441451   2.319744   2.643234  -.6157269  -.3234903
  1.70332   3.097277   2.525775   .1546808   .5715027
 2.894648   2.819165   1.693503   1.485066   1.125662
 .9824768   1.189311   1.434052   .3878213  -.2447408
-1.696896   .0572283    2.09051   -1.72551  -2.033282
 3.833847   4.049266   2.165847   1.809214   1.883419
 1.510118   2.484394   1.317535   .2679211   1.166859
  .100742   2.236172    2.91184  -1.017344  -.6756681
 1.826368   4.312087   3.600269  -.3296752    .711818
 1.543506   2.284443   2.011307   .4012843    .273136
 .0699633   .4547502   .6928334  -.1574118  -.2380831
 1.351413   1.015612   .8559453   .8436067    .159667
 2.805612   4.399158   2.404715   .6060327   1.994444
 .7169451    2.04584   2.030181  -.3059747   .0156583
-.6248304   1.923894    2.60485  -1.586777  -.6809565
  .829079   .3233936   1.099012   .6673822  -.7756186
 .3348455   1.352439   2.561788   -.341374  -1.209349
 1.832444   2.603009   1.943115   .5309396   .6598939
 2.952075   3.310906   1.891693   1.296622   1.419213
 1.903086   2.101318   1.076078   .8524269    1.02524
 3.070528   3.556929   2.005391   1.292063   1.551538
 2.076061   3.994529   2.650318   .0787971    1.34421
 2.399755   2.375525   2.166842   1.211993   .2086834
-1.131152   .9982341   1.969789  -1.630269  -.9715547
 .2668183   .2381841   1.331572   .1477262  -1.093388
 1.735574    1.88096   .9096782   .7950938   .9712819
 3.078118   2.656174   2.375763   1.750031   .2804115
 1.698925   2.530716    2.66429   .4335669  -.1335736
-1.138779  -.4955978   .8273233  -.8909799  -1.322921
-.6977456    1.04444   1.701662  -1.219966  -.6572216
 1.814382    4.02708   3.027639  -.1991584   .9994413
 .2444215   .8127958   1.802017  -.1619764  -.9892215
 2.695036   2.203671    1.60135   1.593201   .6023207
  3.06684   4.357726   3.352475   .8879774    1.00525
 .3268676    2.85279   2.939269  -1.099527   -.086479
-1.342029  -.2564782   1.152263   -1.21379  -1.408741
 1.325396   2.392199   2.280085   .1292963   .1121145
  3.05231   5.314464   4.070286   .3950774   1.244178
 5.120086   5.152601   3.011878   2.543785   2.140723
 .5002421   1.391403   2.974637  -.1954592  -1.583235
 1.969568   2.613715   2.234206   .6627107   .3795084
 5.174492   6.860524   4.697135    1.74423   2.163389
 .5694052   1.376229   1.907105  -.1187092  -.5308762
 3.291443    3.89336   2.503912   1.344763   1.389448
 2.642149     4.7186   3.142752   .2828494   1.575849
 5.146363   4.169409   2.066062   3.061659   2.103347
 2.510248   4.183575   3.385084   .4184607   .7984916
 .9898388   2.469172   1.561566  -.2447474   .9076066
-.1055627   1.611444   1.969288  -.9112847  -.3578435
-2.259816   .1993356   1.009133  -2.359484  -.8097971
 -1.40716  -.6119497   .1040538  -1.101185  -.7160035
 2.482212   3.403723   2.170748     .78035   1.232976
 2.443697   3.003315   1.788373   .9420396   1.214942
 1.963002    3.04336     3.3098   .4413219  -.2664391
 .8611316   1.418856   2.032111   .1517036  -.6132554
 2.561455   4.626722   3.919188   .2480944   .7075338
 1.119942   2.271791   2.768512  -.0159531  -.4967212
-2.087052   1.227042   3.116655  -2.700573  -1.889613
 2.831797   2.670159   1.868717   1.496717   .8014417
 .6473822   1.996226   2.069259  -.3507308  -.0730334
 5.022746   6.425668   4.435193   1.809912   1.990474
 2.527239   4.189583   2.867574   .4324472   1.322009
 .3469118   1.197482   1.473057  -.2518292  -.2755747
 1.036865  -.1925828  -.2185808   1.133156    .025998
 1.069887   1.350173   1.662154   .3948004  -.3119809
 .9950615   1.489869   1.326285   .2501268    .163584
 1.986743   3.624468   2.410434   .1745093   1.214034
 3.449895   4.373255   4.374215   1.263268  -.0009597
 .6742596   1.935208    2.06816  -.2933443  -.1329521
 2.510417   2.749099   1.486386   1.135867   1.262713
-.6991027    1.53874   1.955615  -1.468473   -.416875
 3.045236   3.079711    2.56323   1.505381   .5164809
 .3197625   .5507412   .4089765   .0443919   .1417647
 2.280336   3.303809   1.491494   .6284319   1.812315
 .7758465   2.616041   2.509491   -.532174   .1065496
 .0372725   1.052202   1.610847  -.4888286  -.5586451
 1.462139    2.87094   2.478282   .0266687   .3926579
 .8229662   .8295792   .1930853   .4081766    .636494
-.1992387    .924466   1.209166  -.6614717  -.2846996
 .3116027   1.439199   2.190118   -.407997  -.7509183
  2.44013   2.969314   1.529036   .9554731   1.440278
 1.809458   3.338172   3.286317   .1403717    .051855
 1.740313    2.86004   2.256764   .3102934    .603276
-.7141799  -.1737909   .9140494  -.6272845   -1.08784
 .2437325   .8881569    .594283  -.2003459   .2938738
 .2520623   .9148231   1.966911  -.2053493  -1.052088
 .7111506   1.712567   1.641197   -.145133   .0713698
 1.652385   3.506205   2.626629  -.1007177   .8795761
 1.648804    2.36239   2.039696   .4676095   .3226931
 4.078067   4.239933   2.799289     1.9581   1.440643
 1.214196   2.852192   2.632905  -.2118998   .2192867
 1.736793   2.435261   2.302353   .5191619   .1329085
 2.606755   3.734773   3.634354   .7393684   .1004198
 1.641613    3.09542   2.031409   .0939027   1.064011
  .835951   2.327273    2.35942  -.3276857  -.0321463
 .3111373   1.168573   .6596116  -.2731492   .5089613
-.7459942   1.303769   2.288028  -1.397879  -.9842589
 .9233583   1.357396   1.526497   .2446601  -.1691004
 2.364169   4.385232    4.18789   .1715527   .1973431
 .6805094   2.474712   4.191061  -.5568466  -1.716349
  3.13274   4.572933   3.358902   .8462728   1.214031
-1.431935   .5356057   2.508818  -1.699738  -1.973212
-.5868967   .0444967   .2675944   -.609145  -.2230977
-.8213862   .4742405   2.253549  -1.058506  -1.779309
 .5565767    .685375   1.185244   .2138892  -.4998688
 1.186624   1.396619   1.273413   .4883142   .1232064
-.7390149  -.2604849  -.4811352  -.6087725   .2206503
 2.581413   2.859858   2.189536   1.151484   .6703216
 .7555071   3.234235   3.851169  -.8616102  -.6169348
 .5371166   1.465928   1.333532  -.1958472   .1323958
 .1644833   .7205862    1.23119  -.1958098  -.5106036
-1.660533  -1.235745  -.1205592   -1.04266  -1.115186
 1.716097   3.517572   3.644586  -.0426891  -.1270138
 1.648419   2.939934    1.96599   .1784525   .9739439
 1.409802   3.491061   3.887291  -.3357282  -.3962298
 .6643605   3.030622   3.024476  -.8509505   .0061463
-.0089144   .0043277   .8702652  -.0110782  -.8659375
 .6770432    1.97418   1.124457  -.3100469   .8497233
 1.134323   1.165638   1.103193    .551504   .0624453
 1.328192   2.365876   2.996116   .1452544  -.6302396
-2.729796   .3583248   3.216964  -2.908958   -2.85864
 2.745932   4.476164   3.612287   .5078502   .8638775
 -1.02271   .4304134    1.34724  -1.237917  -.9168262
 2.187284   3.472974   3.006124    .450797   .4668496
 1.786123   2.220239   1.721616   .6760032    .498623
 3.969035   4.382803   2.593571   1.777634   1.789232
-.9602191   1.560467   2.779486  -1.740453  -1.219019
-3.312706  -2.338982  -.0960853  -2.143215  -2.242897
 2.156893   3.433975   3.333861   .4399053   .1001134
 .4474576   1.036244   1.772159  -.0706644  -.7359152
 .5972354   1.315835   2.168852  -.0606822  -.8530166
 1.239402   1.355417    .873291   .5616934   .4821258
 1.824593   2.659796   2.063366   .4946952     .59643
 3.224029   4.089749   2.645695   1.179154   1.444054
 .6727155   1.221436   1.863522   .0619974  -.6420857
-.4205404  -.0607892   1.113511  -.3901458  -1.174301
-.3862971   1.144093   2.544173  -.9583437  -1.400079
-1.697543   .3012218   1.999448  -1.848154  -1.698226
  3.46999   4.169731   3.397194   1.385124   .7725367
-.6066574    .056967   1.762354   -.635141  -1.705387
-.7568313   .1272481   1.125134  -.8204553  -.9978854
-1.492632  -1.077155  -.1938966  -.9540549  -.8832585
 .6423168   .1306622  -.0167764   .5769857   .1474386
 .4430629   1.661405   2.299712  -.3876399  -.6383065
 2.307448   3.038912   2.036556   .7879924   1.002356
 .1806878  -.2862235   .2370572   .3237996  -.5232806
 .0389397   1.110065   .6542444  -.5160926   .4558201
 1.367396   2.512636   1.829811   .1110779    .682825
 1.768829     2.5592   1.920554   .4892285   .6386467
  1.75904   1.452157   1.157621   1.032962   .2945363
 .0714769   1.009596   2.519357  -.4333212   -1.50976
 .2753551   1.535911   1.694287  -.4926002  -.1583765
  .943485   2.474737   2.365001  -.2938837   .1097363
-.8706881  -.8070142  -.3158564   -.467181  -.4911578
  .370308   .6540071   .4669392   .0433044   .1870679
 1.234086   1.494871   1.233123   .4866501   .2617476
 .8037516   1.568601   1.954723   .0194509   -.386121
  4.23125   4.990034   3.738067   1.736233   1.251967
-.6673456    1.20966   1.698761  -1.272176  -.4891017
-1.364258  -.1328444   1.475536  -1.297835  -1.608381
 1.762334   3.499012   3.377538    .012828    .121473
 2.128015   3.034994   2.799215   .6105179   .2357794
 1.493956    3.27266   3.058514  -.1423739   .2141464
 1.070193   2.520847   3.244208   -.190231  -.7233608
 3.818025   4.755837   3.909997   1.440107   .8458404
 1.055709   1.703843   .9346573   .2037877   .7691854
-1.215755   .2780795   1.654961  -1.354795  -1.376881
 2.500864   2.509729   1.863382   1.245999   .6463467
 2.318184   3.145631   2.749824   .7453684   .3958072
 2.752246   3.409526   2.904066   1.047483   .5054598
-.0947309   .2282641   .2662736   -.208863  -.0380095
-.3360187   1.649899   2.396883  -1.160968  -.7469835
 3.665071    3.53373   2.836801   1.898206   .6969289
-.9440991   .5787053    2.36847  -1.233452  -1.789765
 3.360374   4.401073   3.157015   1.159838   1.244058
-.7048267   .5740628   .7112875  -.9918581  -.1372247
 2.939517   2.096296   2.218805   1.891369  -.1225088
  .212988   .9118012    .828102  -.2429126   .0836992
 .1619112   1.326076   1.410577  -.5011269  -.0845004
-1.361428  -.3590178   .2541867  -1.181919  -.6132046
 .8076682   1.013145   1.073551   .3010955  -.0604056
   1.3238   3.296149   2.748904  -.3242746    .547246
  1.44348   2.345854    1.21591   .2705536   1.129944
 1.719534   1.825138   1.829332   .8069648  -.0041946
-2.060526   .1436925   1.899953  -2.132372  -1.756261
  .636886   1.896889   2.528186  -.3115585  -.6312971
-1.117758    1.47017   1.705727  -1.852843   -.235557
 .2854718   .2242647    .943517   .1733394  -.7192522
-.0056569   1.774003   2.376999  -.8926582  -.6029963
 2.349606    3.91586   2.818355   .3916754   1.097506
-.5900835   .8131119   2.058488  -.9966395  -1.245376
 3.013158   3.469978   2.800822   1.278169   .6691563
-.5281992   .0968229   .9899132  -.5766106  -.8930903
 1.083499   .8027276   .6016822    .682135   .2010454
-2.038058  -.2166898   1.245678  -1.929713  -1.462368
 1.103225   1.408177   1.419985    .399137  -.0118088
  1.35077   2.929037   1.667077  -.1137484   1.261959
  3.40923   3.371141   1.996556    1.72366   1.374586
-.0074445   2.144295    2.87147  -1.079592  -.7271754
 2.653033   3.519661   1.989105   .8932022   1.530556
 1.681081   2.525156   2.029643   .4185032   .4955128
 2.329594    2.19616   .7080359   1.231514   1.488124
-2.030763  -.6278104   .4529802  -1.716858  -1.080791
 .7637261   3.015462   3.448727  -.7440047  -.4332649
 .6003125   2.664391    2.40632  -.7318831   .2580715
-.3344371   1.664989   2.141976  -1.166932  -.4769869
 .8967366    2.59547   2.188515  -.4009982   .4069543
 1.925413   3.175297     3.2458   .3377647  -.0705028
 .6144911   3.233038   3.444971  -1.002028  -.2119334
 -.675403    .631215   .5088691  -.9910105    .122346
 .8574996   1.936639   2.167332  -.1108197  -.2306938
 .8367671   2.767138   3.504421  -.5468016  -.7372833
 1.655078   2.551154   1.111552   .3795015   1.439602
 .2852897   1.273347   2.109337  -.3513836    -.83599
 1.991749   2.934883   2.177473   .5243075   .7574105
 2.002859   1.668743   .5894316   1.168487   1.079312
  -1.7728   .4259633   2.197683  -1.985782   -1.77172
  4.76301   5.797026   3.702051   1.864497   2.094974
 .9337378    2.20152   2.362621  -.1670225  -.1611006
 .8551638   .7062532   .8379417   .5020372  -.1316885
 1.784404   2.644485   2.656793   .4621617  -.0123077
-2.485169   .0351747    1.95484  -2.502757  -1.919665
  1.03128   1.229912   1.341184   .4163237   -.111272
 3.613162   5.161755   3.663716   1.032284    1.49804
 1.331596   3.553812   3.906682  -.4453096  -.3528706
-.6380968   2.719049   3.535403  -1.997621   -.816355
 .9383999   2.640758   2.866143  -.3819792  -.2253842
 1.229487   2.743032   3.495946  -.1420285  -.7529145
 2.125293   1.792862   .7291139   1.228863   1.063748
 2.534203   2.644618   2.159441   1.211894   .4851777
 .2670005   1.519784   3.284361  -.4928913  -1.764577
 3.033328   2.779456   2.045934     1.6436   .7335221
 2.366106   2.561285   1.748726   1.085464   .8125589
 .9295331   1.034046   .8988457   .4125101   .1352004
 .6156566   1.530164   1.754286  -.1494256  -.2241214
-1.339704   .5614893   2.155591  -1.620449  -1.594101
 1.457206   2.838412    3.80132   .0379997  -.9629084
 .4564798   1.043483   .7246383  -.0652616   .3188444
 1.762269   2.855663   2.791486   .3344373   .0641778
 .5342003   .9830927   1.367281    .042654  -.3841883
-1.119591  -.0551453   1.320802  -1.092018  -1.375947
 .8919073   2.598759   2.015172  -.4074723   .5835875
 2.629861   3.998932   2.631682   .6303954   1.367249
 3.032366   3.943312   2.729778    1.06071   1.213534
-1.374825   1.006322   2.720145  -1.877986  -1.713823
 1.007204   2.443209   2.454277  -.2144008  -.0110679
 .8215288   1.621485    1.65636    .010786  -.0348742
 .7411474   1.357753    2.24469   .0622709  -.8869368
-.2653981  -.3485161   .8460405    -.09114  -1.194557
 1.347422   2.581978   2.149192   .0564334    .432786
-2.129712   .0258763   1.178998   -2.14265  -1.153121
-.5524262   1.447571   2.680923  -1.276212  -1.233352
 3.291894   4.432224   2.837965   1.075782   1.594259
 2.262942   2.858682   2.211408   .8336014   .6472735
-3.767171  -2.032418   .6604918  -2.750962   -2.69291
 .1448217   .3908585   1.141862  -.0506076  -.7510039
-.8240045   .7090384   1.817572  -1.178524  -1.108534
 1.720664   2.954356   2.685533   .2434863   .2688229
 1.466139   2.314077   1.771919   .3091006   .5421579
-.2785654   1.232863   1.519458  -.8949971  -.2865947
