  6.49130215  2.22898112  4.96835682  1.00000000  1.00000000  1.52294534  1.22898112
  5.36750276  2.10834096  4.44510160  1.00000000  1.00000000   .92240116  1.10834096
  3.97904056  1.76598628  3.11870754  1.00000000  1.00000000   .86033303   .76598628
  -.50764593   .00990068   .00009802  1.00000000  1.00000000  -.50774395  -.99009932
  1.80787440  1.24707386  1.55519321  1.00000000  1.00000000   .25268119   .24707386
  3.34366406  1.81116675  3.28032501  1.00000000  1.00000000   .06333905   .81116675
  1.63279105  1.23467816  1.52443017  1.00000000  1.00000000   .10836088   .23467816
  2.36414982  1.33472435  1.78148909  1.00000000  1.00000000   .58266073   .33472435
   .40133912   .96726771   .93560682  1.00000000  1.00000000  -.53426770  -.03273229
 -1.15372126  -.11538195   .01331300  1.00000000  1.00000000 -1.16703425 -1.11538195
  2.31956162  1.46925132  2.15869946  1.00000000  1.00000000   .16086217   .46925132
  -.98756613   .38681982   .14962957  1.00000000  1.00000000 -1.13719571  -.61318018
  3.06819813  1.54020699  2.37223757  1.00000000  1.00000000   .69596056   .54020699
  2.83526955  1.46898364  2.15791293  1.00000000  1.00000000   .67735662   .46898364
  1.85275262  1.23161621  1.51687849  1.00000000  1.00000000   .33587413   .23161621
  4.10785371  1.77282019  3.14289143  1.00000000  1.00000000   .96496228   .77282019
  6.37786404  2.33060487  5.43171907  1.00000000  1.00000000   .94614498  1.33060487
  -.07348759   .37496982   .14060237  1.00000000  1.00000000  -.21408996  -.62503018
  -.12571478   .38925460   .15151914  1.00000000  1.00000000  -.27723392  -.61074540
  2.40998763  1.54747273  2.39467185  1.00000000  1.00000000   .01531577   .54747273
  2.33450070  1.60984697  2.59160726  1.00000000  1.00000000  -.25710657   .60984697
  6.47766250  2.17044308  4.71082317  1.00000000  1.00000000  1.76683933  1.17044308
  4.31541799  1.99050014  3.96209081  1.00000000  1.00000000   .35332717   .99050014
 -1.22897452  -.37217575   .13851479  1.00000000  1.00000000 -1.36748931 -1.37217575
  2.96774020  1.35570714  1.83794186  1.00000000  1.00000000  1.12979835   .35570714
  -.65172796   .45583394   .20778458  1.00000000  1.00000000  -.85951254  -.54416606
 -1.62439282  -.19521754   .03810989  1.00000000  1.00000000 -1.66250271 -1.19521754
  1.37335893  1.07790201  1.16187275  1.00000000  1.00000000   .21148618   .07790201
  1.61175345  1.16502268  1.35727785  1.00000000  1.00000000   .25447560   .16502268
  -.19686290   .36766881   .13518035  1.00000000  1.00000000  -.33204325  -.63233119
  1.93761440  1.23568479  1.52691691  1.00000000  1.00000000   .41069749   .23568479
  2.35332145  1.31922400  1.74035196  1.00000000  1.00000000   .61296949   .31922400
 -2.11660278  -.53155179   .28254731  1.00000000  1.00000000 -2.39915009 -1.53155179
  -.49315851   .44998978   .20249080  1.00000000  1.00000000  -.69564931  -.55001022
  7.04378351  2.41593999  5.83676606  1.00000000  1.00000000  1.20701745  1.41593999
   .59097295   .95132106   .90501177  1.00000000  1.00000000  -.31403882  -.04867894
  6.04640250  2.22747830  4.96165960  1.00000000  1.00000000  1.08474290  1.22747830
  2.16466188  1.47807718  2.18471214  1.00000000  1.00000000  -.02005025   .47807718
 -1.53908129  -.64680910   .41836202  1.00000000  1.00000000 -1.95744330 -1.64680910
  6.14484146  2.16894317  4.70431447  1.00000000  1.00000000  1.44052700  1.16894317
  5.43384154  2.02934130  4.11822612  1.00000000  1.00000000  1.31561542  1.02934130
  -.67522458   .21902176   .04797053  1.00000000  1.00000000  -.72319511  -.78097824
  3.50475848  1.60011905  2.56038098  1.00000000  1.00000000   .94437750   .60011905
  4.67964163  1.77185786  3.13948027  1.00000000  1.00000000  1.54016136   .77185786
  2.10589258  1.39059835  1.93376378  1.00000000  1.00000000   .17212881   .39059835
  4.21983184  1.94417380  3.77981177  1.00000000  1.00000000   .44002007   .94417380
  -.60787348   .12002145   .01440515  1.00000000  1.00000000  -.62227863  -.87997855
  2.22546918  1.58851450  2.52337831  1.00000000  1.00000000  -.29790913   .58851450
   .56719241   .94935891   .90128234  1.00000000  1.00000000  -.33408992  -.05064109
 -1.10521880  -.06085643   .00370351  1.00000000  1.00000000 -1.10892230 -1.06085643
  1.07746833   .95752677   .91685751  1.00000000  1.00000000   .16061082  -.04247323
  -.34152193  -.52582433   .27649123  1.00000000  1.00000000  -.61801316 -1.52582433
  1.49954257  1.21981013  1.48793676  1.00000000  1.00000000   .01160581   .21981013
  -.49325840   .33165900   .10999769  1.00000000  1.00000000  -.60325609  -.66834100
  1.31353874  1.12212520  1.25916496  1.00000000  1.00000000   .05437378   .12212520
   .82097475  1.07882357  1.16386030  1.00000000  1.00000000  -.34288554   .07882357
  5.83108327  2.00556572  4.02229388  1.00000000  1.00000000  1.80878940  1.00556572
  2.04830113  1.34424693  1.80699982  1.00000000  1.00000000   .24130132   .34424693
  1.88515912   .96380207   .92891442  1.00000000  1.00000000   .95624470  -.03619793
  7.04247248  2.42200226  5.86609495  1.00000000  1.00000000  1.17637753  1.42200226
  4.31221988  1.74439480  3.04291323  1.00000000  1.00000000  1.26930665   .74439480
   .38902677   .78889755   .62235935  1.00000000  1.00000000  -.23333258  -.21110245
  6.82761298  2.40174527  5.76838034  1.00000000  1.00000000  1.05923263  1.40174527
  3.15774629  1.70685736  2.91336205  1.00000000  1.00000000   .24438424   .70685736
  -.89645702   .02351594   .00055300  1.00000000  1.00000000  -.89701002  -.97648406
  -.03611598   .25974213   .06746597  1.00000000  1.00000000  -.10358196  -.74025787
  -.93350353 -1.04058108  1.08280899  1.00000000  1.00000000 -2.01631252 -2.04058108
  -.81522180   .23539110   .05540897  1.00000000  1.00000000  -.87063077  -.76460890
  7.84531482  2.59741490  6.74656419  1.00000000  1.00000000  1.09875064  1.59741490
  -.19818017   .92655436   .85850298  1.00000000  1.00000000 -1.05668316  -.07344564
  3.34751029  1.51175255  2.28539578  1.00000000  1.00000000  1.06211451   .51175255
 -1.65755608  -.01707543   .00029157  1.00000000  1.00000000 -1.65784765 -1.01707543
   .70513460   .95625834   .91443002  1.00000000  1.00000000  -.20929542  -.04374166
 -1.59577510  -.00973689   .00009481  1.00000000  1.00000000 -1.59586991 -1.00973689
   .05289147   .69891574   .48848322  1.00000000  1.00000000  -.43559175  -.30108426
   .62093483   .69948495   .48927920  1.00000000  1.00000000   .13165563  -.30051505
  1.35341866   .91360954   .83468240  1.00000000  1.00000000   .51873626  -.08639046
  -.01937466   .67185720   .45139210  1.00000000  1.00000000  -.47076676  -.32814280
  3.18998423  1.63372428  2.66905502  1.00000000  1.00000000   .52092921   .63372428
  2.00743303  1.20437831  1.45052711  1.00000000  1.00000000   .55690592   .20437831
   .17663252   .67213351   .45176346  1.00000000  1.00000000  -.27513094  -.32786649
   .75499564   .89371230   .79872167  1.00000000  1.00000000  -.04372603  -.10628770
  -.76912356   .50604695   .25608352  1.00000000  1.00000000 -1.02520708  -.49395305
  2.49623070  1.42126799  2.02000270  1.00000000  1.00000000   .47622800   .42126799
  9.35486322  2.67441713  7.15250696  1.00000000  1.00000000  2.20235625  1.67441713
 -1.15619292   .46401719   .21531195  1.00000000  1.00000000 -1.37150487  -.53598281
 -1.34631055   .10412193   .01084138  1.00000000  1.00000000 -1.35715193  -.89587807
  1.09563945   .95953802   .92071321  1.00000000  1.00000000   .17492623  -.04046198
  1.38965713  1.09522860  1.19952570  1.00000000  1.00000000   .19013143   .09522860
  4.13022802  1.86447906  3.47628216  1.00000000  1.00000000   .65394586   .86447906
  1.26745346  1.15516338  1.33440244  1.00000000  1.00000000  -.06694898   .15516338
   .44321524   .83706552   .70067869  1.00000000  1.00000000  -.25746345  -.16293448
  1.19596315   .92169252   .84951710  1.00000000  1.00000000   .34644605  -.07830748
   .06702442 -1.69814947  2.88371164  1.00000000  1.00000000 -2.81668721 -2.69814947
 -1.41713354  -.32935497   .10847469  1.00000000  1.00000000 -1.52560824 -1.32935497
  -.90813267  -.25608736   .06558073  1.00000000  1.00000000  -.97371340 -1.25608736
  5.45869476  2.06105963  4.24796681  1.00000000  1.00000000  1.21072795  1.06105963
  1.53246528  1.25344015  1.57111222  1.00000000  1.00000000  -.03864694   .25344015
  -.22609331   .82367889   .67844691  1.00000000  1.00000000  -.90454023  -.17632111
 -1.02608396   .28773219   .08278981  1.00000000  1.00000000 -1.10887377  -.71226781
  2.65983024  1.45766643  2.12479144  1.00000000  1.00000000   .53503881   .45766643
  4.61262697  1.84981604  3.42181938  1.00000000  1.00000000  1.19080758   .84981604
  3.92899165  1.76242466  3.10614068  1.00000000  1.00000000   .82285096   .76242466
  2.87322270  1.43531742  2.06013610  1.00000000  1.00000000   .81308659   .43531742
   .27917122   .59632242   .35560043  1.00000000  1.00000000  -.07642921  -.40367758
   .60836501   .87516152   .76590768  1.00000000  1.00000000  -.15754267  -.12483848
 -1.42181341   .15299893   .02340867  1.00000000  1.00000000 -1.44522208  -.84700107
  2.47438871  1.31044513  1.71726644  1.00000000  1.00000000   .75712228   .31044513
  3.60554681  1.57363519  2.47632773  1.00000000  1.00000000  1.12921908   .57363519
  1.07644830  1.01048479  1.02107950  1.00000000  1.00000000   .05536879   .01048479
  2.42328969  1.45811168  2.12608968  1.00000000  1.00000000   .29720002   .45811168
 -1.15169547  -.56210510   .31596215  1.00000000  1.00000000 -1.46765762 -1.56210510
 -1.01865915  -.08669871   .00751667  1.00000000  1.00000000 -1.02617581 -1.08669871
  2.26726550  1.29036762  1.66504860  1.00000000  1.00000000   .60221690   .29036762
  5.93257468  2.16522642  4.68820544  1.00000000  1.00000000  1.24436924  1.16522642
   .29865778   .69538678   .48356277  1.00000000  1.00000000  -.18490499  -.30461322
  -.64328984   .21986378   .04834008  1.00000000  1.00000000  -.69162993  -.78013622
  -.50366571   .74186453   .55036298  1.00000000  1.00000000 -1.05402869  -.25813547
  2.59062247  1.44199319  2.07934437  1.00000000  1.00000000   .51127810   .44199319
  2.84154407  1.52533290  2.32664046  1.00000000  1.00000000   .51490361   .52533290
  4.82359295  2.01683592  4.06762714  1.00000000  1.00000000   .75596581  1.01683592
  1.69905271  1.06597215  1.13629662  1.00000000  1.00000000   .56275608   .06597215
  2.02013459  1.48717585  2.21169200  1.00000000  1.00000000  -.19155741   .48717585
   .79793939   .96067119   .92288914  1.00000000  1.00000000  -.12494975  -.03932881
  3.23453654  1.61506722  2.60844212  1.00000000  1.00000000   .62609442   .61506722
  3.08772222  1.60303601  2.56972446  1.00000000  1.00000000   .51799777   .60303601
  -.31714037   .67663571   .45783589  1.00000000  1.00000000  -.77497626  -.32336429
 -1.75938455  -.39599620   .15681299  1.00000000  1.00000000 -1.91619754 -1.39599620
   .59452213   .86373189   .74603277  1.00000000  1.00000000  -.15151065  -.13626811
   .68515184   .59516544   .35422191  1.00000000  1.00000000   .33092994  -.40483456
  3.14805543  1.62294367  2.63394614  1.00000000  1.00000000   .51410929   .62294367
   .90892254   .94088423   .88526312  1.00000000  1.00000000   .02365942  -.05911577
 -1.34500618  -.68066900   .46331029  1.00000000  1.00000000 -1.80831647 -1.68066900
  -.04957509   .53435554   .28553584  1.00000000  1.00000000  -.33511093  -.46564446
   .86073810   .99670999   .99343080  1.00000000  1.00000000  -.13269270  -.00329001
  1.38294444  1.07617313  1.15814860  1.00000000  1.00000000   .22479585   .07617313
  -.45357767   .72435651   .52469235  1.00000000  1.00000000  -.97827002  -.27564349
  -.26438153   .46204788   .21348824  1.00000000  1.00000000  -.47786977  -.53795212
  3.65198004  1.64256948  2.69803450  1.00000000  1.00000000   .95394553   .64256948
  2.55604848  1.44039624  2.07474134  1.00000000  1.00000000   .48130714   .44039624
  1.28620392   .88148913   .77702309  1.00000000  1.00000000   .50918083  -.11851087
   .82556381  1.09759122  1.20470649  1.00000000  1.00000000  -.37914268   .09759122
   .51335172   .74785044   .55928028  1.00000000  1.00000000  -.04592855  -.25214956
  7.13533408  2.52526602  6.37696847  1.00000000  1.00000000   .75836560  1.52526602
  -.34872074   .32616989   .10638679  1.00000000  1.00000000  -.45510753  -.67383011
 -1.67013617   .05493064   .00301738  1.00000000  1.00000000 -1.67315355  -.94506936
  2.30890788  1.46085473  2.13409656  1.00000000  1.00000000   .17481132   .46085473
  4.19645031  1.72599012  2.97904188  1.00000000  1.00000000  1.21740843   .72599012
  -.85531105   .24773457   .06137242  1.00000000  1.00000000  -.91668347  -.75226543
  -.54268815   .45707977   .20892192  1.00000000  1.00000000  -.75161006  -.54292023
  1.53392595  1.41226265  1.99448580  1.00000000  1.00000000  -.46055986   .41226265
   .23287158   .69636150   .48491934  1.00000000  1.00000000  -.25204777  -.30363850
  -.66088686  -.02977686   .00088666  1.00000000  1.00000000  -.66177352 -1.02977686
  5.64402885  2.12433047  4.51277995  1.00000000  1.00000000  1.13124890  1.12433047
  2.11598310  1.22651343  1.50433519  1.00000000  1.00000000   .61164791   .22651343
  1.85084121  1.27073941  1.61477865  1.00000000  1.00000000   .23606256   .27073941
 -1.33311552   .14934626   .02230431  1.00000000  1.00000000 -1.35541983  -.85065374
  4.94261220  1.94355507  3.77740631  1.00000000  1.00000000  1.16520589   .94355507
  3.05346042  1.53310162  2.35040057  1.00000000  1.00000000   .70305984   .53310162
  -.60438389  -.45655381   .20844138  1.00000000  1.00000000  -.81282526 -1.45655381
 -1.25941962   .36581943   .13382386  1.00000000  1.00000000 -1.39324348  -.63418057
  -.52538613   .48598395   .23618040  1.00000000  1.00000000  -.76156653  -.51401605
  -.94511644  -.14628454   .02139917  1.00000000  1.00000000  -.96651561 -1.14628454
  6.98894666  2.33710233  5.46204728  1.00000000  1.00000000  1.52689938  1.33710233
  3.09837685  1.66721464  2.77960466  1.00000000  1.00000000   .31877219   .66721464
  3.84555353  1.84881705  3.41812450  1.00000000  1.00000000   .42742904   .84881705
  2.04790150  1.39342308  1.94162787  1.00000000  1.00000000   .10627362   .39342308
  4.02523013  1.73000782  2.99292706  1.00000000  1.00000000  1.03230307   .73000782
  6.29299598  2.21137174  4.89016495  1.00000000  1.00000000  1.40283102  1.21137174
  2.63059862  1.42720878  2.03692490  1.00000000  1.00000000   .59367371   .42720878
   .89260756  1.29156702  1.66814537  1.00000000  1.00000000  -.77553781   .29156702
  -.36720676   .49263935   .24269353  1.00000000  1.00000000  -.60990028  -.50736065
  3.32022333  1.60879021  2.58820595  1.00000000  1.00000000   .73201738   .60879021
  1.46469600 -1.90828518  3.64155233  1.00000000  1.00000000 -2.17685633 -2.90828518
  1.78502390  1.44447606  2.08651110  1.00000000  1.00000000  -.30148719   .44447606
 -1.54720581  -.24672933   .06087536  1.00000000  1.00000000 -1.60808117 -1.24672933
  3.77470431  1.78475420  3.18534756  1.00000000  1.00000000   .58935676   .78475420
  2.05903702  1.46875776  2.15724935  1.00000000  1.00000000  -.09821233   .46875776
  1.05337356  1.27851843  1.63460938  1.00000000  1.00000000  -.58123581   .27851843
   .40083989   .02013392   .00040537  1.00000000  1.00000000   .40043452  -.97986608
 -2.33265584  -.43724464   .19118287  1.00000000  1.00000000 -2.52383871 -1.43724464
  9.22643944  2.69636309  7.27037393  1.00000000  1.00000000  1.95606550  1.69636309
 -1.50969492  -.22755618   .05178181  1.00000000  1.00000000 -1.56147673 -1.22755618
  3.31211993  1.55490903  2.41774209  1.00000000  1.00000000   .89437784   .55490903
   .69703953   .70448099   .49629347  1.00000000  1.00000000   .20074606  -.29551901
  1.70016193  1.38734723  1.92473235  1.00000000  1.00000000  -.22457041   .38734723
  -.31976463   .56905819   .32382723  1.00000000  1.00000000  -.64359185  -.43094181
   .36268266   .87251894   .76128930  1.00000000  1.00000000  -.39860664  -.12748106
  -.50172964   .65637233   .43082463  1.00000000  1.00000000  -.93255427  -.34362767
 -1.19735925  -.08451275   .00714240  1.00000000  1.00000000 -1.20450165 -1.08451275
  -.33816138   .25388450   .06445734  1.00000000  1.00000000  -.40261872  -.74611550
  4.53689172  1.79215048  3.21180336  1.00000000  1.00000000  1.32508836   .79215048
  1.99863261  1.38144393  1.90838733  1.00000000  1.00000000   .09024528   .38144393
  3.14554945  1.62934811  2.65477528  1.00000000  1.00000000   .49077418   .62934811
  2.00960257  1.39658435  1.95044786  1.00000000  1.00000000   .05915471   .39658435
   .79164162  1.05579300  1.11469887  1.00000000  1.00000000  -.32305724   .05579300
  1.16450899   .99567230   .99136333  1.00000000  1.00000000   .17314566  -.00432770
  4.57736405  1.88615145  3.55756729  1.00000000  1.00000000  1.01979676   .88615145
 -1.43645689  -.29086717   .08460371  1.00000000  1.00000000 -1.52106060 -1.29086717
 -1.20917283  -.38219764   .14607503  1.00000000  1.00000000 -1.35524786 -1.38219764
