 39.93944   6.330834   5.150759    32.6086
-.5066862   4.466929  -1.337298  -5.973616
-1.663819  -1.598173  -.6667905  -1.065647
 3.276537   1.753067   .2986024     .52347
 4.113815   2.974787   .0467352   .1390274
-9.463596  -6.464025  -.6187431  -3.999571
 1.049703  -.1429334   1.347734   .1926361
 2.423489    1.72505  -.1748128  -.3015607
-2.348963   1.714417  -2.953413   -5.06338
 -.691873  -2.197191   .2299837   .5053182
 19.08376   4.564914   2.961468   13.51885
 1.081127   2.087056  -.9611284  -2.005929
-.2038949   3.031275  -1.397158  -4.235169
 1.034759  -.0515266   1.674591    .086286
 5.978847   7.259951  -.3142038  -2.281104
 6.311626   6.785828  -.2172471  -1.474202
 4.844215   1.195616   2.215258   2.648599
 1.650587   .8051573  -.1919755  -.1545705
 3.963569  -11.05289   1.268126   14.01646
-2.426653  -6.607923   .4814327    3.18127
 9.178189   2.410803    2.39231   5.767387
 .9258697   .1082335  -1.684911  -.1823638
 -1.96468  -1.378205  -1.151116  -1.586475
 7.648005   1.869407   2.556211   4.778598
-7.490237  -3.224348  -1.633164  -5.265889
-26.40434  -10.85176  -1.525337  -16.55259
 12.62038   4.660721   1.493257   6.959656
 1.153448   .0672691   1.281103   .0861787
 1.332022  -.1070414    4.10181   .4390636
-27.63657  -9.055596  -2.162307  -19.58098
-2.747547  -4.632244   .1909866   .8846967
 9.551559  -2.586507   4.306219   11.13807
 2.766288  -.8647633    3.04251   2.631051
-7.695844  -2.341105  -2.714418  -6.354738
 1.415051   .0918768   3.517479   .3231747
 -5.62404   7.199313  -1.920093  -13.82335
-.6269516   -1.80911   .1006897   .1821587
-1.713734   -1.27813  -1.123207  -1.435604
 1.106035    4.57799  -.9768381  -4.471954
 17.58969  -6.620964   3.505631   23.21065
 5.299787     4.6646   -.078209  -.3648136
-11.38846  -4.516104  -1.743175  -7.872359
-3.631961  -3.705982  -.2498605  -.9259787
-10.76039  -2.477455  -3.746965  -9.282937
 4.664496   5.146042  -.2879001  -1.481546
 6.223416   2.409677   1.167683   2.813739
-.2050438   -3.59585   .6648793   2.390806
 .5934428  -.2095191  -.9404301  -.1970381
 2.892396   -3.84482   1.492194   5.737216
 1.876644   2.922966  -.7000841  -2.046322
-2.772337  -1.343495  -1.807853  -2.428842
-.0795791   .3888319  -3.776468  -1.468411
  10.3871  -3.183206   3.948944    12.5703
 -9.45052   7.747988  -2.348804  -18.19851
 7.720822   2.609135   1.575881   4.111687
   .62816   1.628476  -1.228336  -2.000316
 .9494974   .7599042  -1.066459  -.8104068
 .2297898   .5347601  -2.440291   -1.30497
  1.40592  -.2003501   3.026053     .60627
 16.43924   7.249438   1.129716   8.189804
 6.834001   7.290338  -.1997626  -1.456337
 .7316361  -.7846478   .6579817   .5162839
-12.08425  -6.869349  -.9047287  -6.214897
 4.227389   .7476047   3.316972   2.479784
-3.760284   -7.83533    .392459   3.075046
-2.876687  -5.259309   .2628904   1.382622
-11.23656  -3.000771  -3.077806  -9.235792
 33.62311   10.63336   2.067995   21.98975
-5.707434  -1.945144  -2.448298   -4.76229
-16.61856  -7.219341  -1.440466  -10.39921
 1.794945  -5.122459   1.155188   5.917404
 16.23434   5.854062   1.602355   9.380282
 1.454168   .1466869   2.096175   .3074814
 .9827743  -.0039651  -3.344321  -.0132606
 4.875443    .697787   4.553906   3.177657
-.6515189  -.9387372  -.7592984  -.7127817
 2.000972   -2.74768   1.364297   3.748652
-1.165222   -.968002  -1.236795   -1.19722
-14.13839  -7.714979   -.962208  -7.423415
 4.695145   3.455005   .0695049   .2401397
-.5321417  -7.733128    .801873   6.200986
 .3301064  -.3791365  -.7668931  -.2907571
 19.13969  -4.980718   4.641983   23.12041
 1.354674   1.908169  -.8141288  -1.553496
 7.747035   -10.5869     1.6373   17.33393
 15.49091    6.05817   1.391962   8.432744
 8.156672  -2.184845   4.275598   9.341516
 2.741853   2.007733  -.1324279  -.2658798
-.3584942   1.875075  -1.724501  -3.233569
 2.465579  -2.164095   1.677225   3.629674
 4.381211   2.071457   .6322868   1.309755
 2.443523   2.796932  -.4838904  -1.353409
 4.959215   10.55758  -.6249886   -6.59837
 .3989024   -.488115  -.2314672  -.1129826
 17.39633  -4.850757    4.38016   21.24709
 9.800956   2.538999   2.466309   6.261957
 5.558375   4.121417   .1060214   .4369585
 7.893688   8.268044  -.1662251  -1.374357
 6.904297  -6.275292    1.94088   12.17959
  1.00424  -.0050988   1.831537   .0093387
