-.5788529   .8352288   1.256376
-.1311843  -.5074198   .3613958
 1.451209   1.730195   4.181405
 1.110411  -.5088609    1.60155
 .4868183   .5420984   2.028917
 3.874818  -.3169081    4.55791
-1.081002  -2.037266  -2.118269
 -.078814   .9485412   1.869727
 .1073427   .4036022   1.510945
-.4822175  -1.389558  -.8717755
 .2397284  -.2289511   1.010777
-.9659225  -2.261262  -2.227185
  .049595   1.450174   2.499769
 2.391505  -1.833426   1.558079
 .6374916   .9789113   2.616403
 6.423636   .7195918   8.143228
 1.337515  -2.906972  -.5694572
-.1096264   -.001386   .8889877
 1.263801  -.2789987   1.984802
-.3499157   .0311826   .6812668
-.4724995   .3581289   .8856294
  1.23729  -.6061596   1.631131
 .4685231  -.0176729    1.45085
 3.562418  -.1562508   4.406167
  1.16203   .0172798    2.17931
 .2416562   .7509296   1.992586
  2.67355  -.0311993   3.642351
 .8946137   .9517467    2.84636
 .5783851    .050144   1.628529
 .5031785   .4528074   1.955986
  -.41491   .0733215   .6584114
-.1957239  -.7255028   .0787733
-1.827296   -.466442  -1.293738
 .6689739  -.2587264   1.410248
 .1004808  -.1833653   .9171155
-.7001815  -.1126872   .1871313
 1.146092  -.4847642   1.661328
   .11074  -.2308564   .8798836
-.2092754   .2094336   1.000158
 .4079499   .2353144   1.643264
 1.048566   .6128528   2.661418
 .9998021  -.8303166   1.169486
 .7073582  -.8375853   .8697729
 1.236151   1.831281   4.067432
 .9475724   1.535891   3.483463
-1.239142  -.6843714  -.9235131
 1.000034    .829576    2.82961
-.6093821   .4305022   .8211201
-.7292292  -1.018136  -.7473656
 .8418324  -.2795062   1.562326
 1.010553  -.0491912   1.961362
-.0158013   .9331782   1.917377
 .9895753  -.2202854    1.76929
-.7193059  -.0573144   .2233796
 .3213018   .0379846   1.359286
 -.632064  -.6452307  -.2772947
 .0925669  -.4470799   .6454871
-.5698574   .6385016   1.068644
 .9776296  -.0004171   1.977213
  .705147   .3338377   2.038985
 .8925809  -.5742002   1.318381
 2.395449  -.0478661   3.347583
  2.70593   .2941673   4.000097
 3.411443   .0318816   4.443325
-.3894241   .9779471   1.588523
 1.789198   .6808751   3.470073
-1.038809   .3789609   .3401519
 -1.06748   -.080701  -.1481813
 .0552016   1.854676   2.909878
 1.070346   .9809083   3.051254
 .8286251   .0281271   1.856752
-.2297164   .6004497   1.370733
 1.292776   1.341814   3.634591
 .2637224   .0337419   1.297464
   1.4878   .8320532   3.319854
 1.218791   .8513599   3.070151
 1.073414  -1.299682   .7737316
-.3781979   .0779957   .6997977
 2.332247  -.0862685   3.245979
 3.148682   1.037221   5.185903
 3.393431   -1.31064   3.082791
-.6205481   -1.61692  -1.237468
 1.324118   1.502897   3.827015
-.7652439   .0208698   .2556259
 1.954206  -1.482816    1.47139
 3.016922  -1.732686   2.284237
 .3900363   .1642944   1.554331
 1.122109  -.6389806   1.483129
 .9700011   .5853225   2.555324
  .754742   .6905694   2.445312
 1.266366  -.1786693   2.087697
 .2539839  -1.317622  -.0636383
-.2410655   .8610387   1.619973
-.9244532  -1.444108  -1.368562
 2.252837   1.576263     4.8291
 .3656197   -.017157   1.348463
 5.222877  -.9549071    5.26797
-1.141206   .6230826    .481877
 .5122632   2.302204   3.814467
 .4952358   1.300825   2.796061
