-962.2322   2.698489  -763.7427          .          0          0
-468.3641   2.204128  -764.2358          .          0          0
 810.3654   2.376383   686.7487   686.7487   686.7487          1
 580.8766   2.401326   482.2025   482.2025   482.2025          1
 102.6225   2.600573   203.1956   203.1956   203.1956          1
 2042.638    3.50177   3044.408   3044.408   3044.408          1
-1621.421   2.399225  -1722.195          .          0          0
-415.4235   2.838914  -76.50931          .          0          0
-234.5091   3.057237    322.728    322.728    322.728          1
-848.9103   1.928092  -1420.819          .          0          0
 -112.331   2.690986   78.65495   78.65495   78.65495          1
 -1459.02   2.139871  -1819.149          .          0          0
-289.4539   2.477315  -312.1392          .          0          0
 1356.744   3.242733   2099.477   2099.477   2099.477          1
 226.0526   3.639179   1365.232   1365.232   1365.232          1
 2943.727   2.661656   3105.383   3105.383   3105.383          1
 735.9799   3.146659   1382.639   1382.639   1382.639          1
-446.4585   2.753378  -193.0803          .          0          0
 686.6166    3.99739   2184.007   2184.007   2184.007          1
-699.9847   2.704848  -495.1369          .          0          0
-837.7311   2.209132  -1128.599          .          0          0
 668.6381   2.923125   1091.763   1091.763   1091.763          1
 87.25603   2.448849   36.10548   36.10548   36.10548          1
 1911.479   2.785306   2196.785   2196.785   2196.785          1
 616.9291    2.56322   680.1489   680.1489   680.1489          1
-110.5894   4.074553   1463.963   1463.963   1463.963          1
 1500.985   2.896809   1897.794   1897.794   1897.794          1
 424.6938   1.658716  -416.5899          .          0          0
  178.285    1.79345  -528.2649          .          0          0
 116.2927   .9039821  -1479.725          .          0          0
-772.2725   3.560339   288.0667   288.0667   288.0667          1
-534.9078   2.617172  -417.7358          .          0          0
-2878.934   2.525989  -2852.944          .          0          0
 251.1622   2.758742   509.9042   509.9042   509.9042          1
-240.9842   3.177811   436.8272   436.8272   436.8272          1
-1110.286   3.006735  -603.5504          .          0          0
 605.8491   3.541548   1647.397   1647.397   1647.397          1
-231.3086   2.161475  -569.8339          .          0          0
-549.0667   2.624479  -424.5879          .          0          0
 35.77032   3.321253   857.0234   857.0234   857.0234          1
 537.0345   3.001751   1038.786   1038.786   1038.786          1
 501.9545   3.180603   1182.557   1182.557   1182.557          1
   281.47   1.934442   -284.088          .          0          0
 667.8629   3.026762   1194.625   1194.625   1194.625          1
 463.8678   3.381282   1345.149   1345.149   1345.149          1
-1856.915   2.998052  -1358.862          .          0          0
 502.1227   3.330437    1332.56    1332.56    1332.56          1
-998.8672   3.702549   203.6822   203.6822   203.6822          1
-1146.727   3.947124   300.3966   300.3966   300.3966          1
 385.0796   2.451111   336.1909   336.1909   336.1909          1
 509.7277   3.911767   1921.494   1921.494   1921.494          1
  -352.94   2.072234  -780.7061          .          0          0
 494.5392   3.097688   1092.227   1092.227   1092.227          1
-1134.234   2.795914  -838.3199          .          0          0
-39.55082   2.557432   17.88135   17.88135   17.88135          1
-1026.352   3.059685  -466.6667          .          0          0
-248.4699   1.852503  -895.9666          .          0          0
-951.5151   3.207952  -243.5629          .          0          0
 485.8516   3.286924   1272.776   1272.776   1272.776          1
 279.7331   2.108444  -111.8229          .          0          0
 423.1788   2.555305   478.4833   478.4833   478.4833          1
 1358.815   3.029776   1888.591   1888.591   1888.591          1
 1517.063   3.258745   2275.808   2275.808   2275.808          1
 1845.875   2.735872   2081.746   2081.746   2081.746          1
-743.7289   3.739873   496.1438   496.1438   496.1438          1
 1019.933   2.808296    1328.23    1328.23    1328.23          1
 -1561.03    1.66256   -2398.47          .          0          0
-1601.958   2.136952  -1965.006          .          0          0
-284.0741   2.710955  -73.11916          .          0          0
 552.5563   1.712123  -235.3203          .          0          0
 375.0761   2.387062   262.1384   262.1384   262.1384          1
-570.5487    3.05884  -11.70915          .          0          0
 706.1296   3.298945   1505.075   1505.075   1505.075          1
 -90.7304   2.208565  -382.1652          .          0          0
 833.8693   2.362362    696.231    696.231    696.231          1
 656.0201   3.764485   1920.505   1920.505   1920.505          1
 554.7353   2.649032   703.7669   703.7669   703.7669          1
-731.2372   2.947214  -284.0231          .          0          0
 1325.431   3.000666   1826.096   1826.096   1826.096          1
 1727.922   1.319744   547.6663   547.6663   547.6663          1
 1837.945   2.783673   2121.619   2121.619   2121.619          1
-1012.369   2.555064  -957.3052          .          0          0
 727.0765   3.682482   1909.559   1909.559   1909.559          1
-1192.461   4.373462   681.0007   681.0007   681.0007          1
 1116.527   2.544217   1160.744   1160.744   1160.744          1
 1666.843   3.679914   2846.757   2846.757   2846.757          1
 20.36207   3.355883   876.2449   876.2449   876.2449          1
 589.0898   3.228663   1317.753   1317.753   1317.753          1
  480.289   2.874081   854.3702   854.3702   854.3702          1
  318.428   2.672872   491.2998   491.2998   491.2998          1
 688.3502   2.331918   520.2686   520.2686   520.2686          1
-99.47787   3.208135   608.6575   608.6575   608.6575          1
 -582.541   2.847225  -235.3155          .          0          0
-1402.251   3.399993  -502.2572          .          0          0
 1282.886   2.619462   1402.348   1402.348   1402.348          1
-.7760908    1.68621  -814.5659          .          0          0
 2550.574   2.308878   2359.452   2359.452   2359.452          1
-1709.338     2.6145  -1594.838          .          0          0
 123.8548   3.528871   1152.725   1152.725   1152.725          1
 109.6643   3.060887   670.5516   670.5516   670.5516          1
 835.2288   2.873785   1209.013   1209.013   1209.013          1
-507.4199   2.863188  -144.2318          .          0          0
 1730.195   2.275501   1505.696   1505.696   1505.696          1
-508.8609   3.063661   54.79975   54.79975   54.79975          1
 542.0984   1.693748  -264.1535          .          0          0
-316.9081   3.383715   566.8073   566.8073   566.8073          1
-2037.267   2.203156   -2334.11          .          0          0
 948.5411   1.771372   219.9132   219.9132   219.9132          1
 403.6022   2.830843   734.4457   734.4457   734.4457          1
-1389.558   2.672964  -1216.594          .          0          0
-228.9511   2.516816  -212.1347          .          0          0
-2261.262   2.449151  -2312.111          .          0          0
 1450.174   2.975868   1926.042   1926.042   1926.042          1
-1833.426   3.414539  -918.8871          .          0          0
 978.9114    3.05087   1529.782   1529.782   1529.782          1
 719.5918   2.194545   414.1368   414.1368   414.1368          1
-2906.972   3.464305  -1942.667          .          0          0
-1.385993   2.447672  -53.71363          .          0          0
-278.9987    2.93009   151.0915   151.0915   151.0915          1
 31.18258   3.019439   550.6216   550.6216   550.6216          1
 358.1289   3.900303   1758.432   1758.432   1758.432          1
-606.1596   2.160128  -946.0313          .          0          0
-17.67291   3.069046   551.3726   551.3726   551.3726          1
-156.2509   2.691222    34.9711    34.9711    34.9711          1
 17.27975   2.024367  -458.3534          .          0          0
 750.9296    2.85497     1105.9     1105.9     1105.9          1
-31.19934   2.929659     398.46     398.46     398.46          1
 951.7467   1.905537   357.2835   357.2835   357.2835          1
 50.14397   2.169972  -279.8841          .          0          0
 452.8074   2.233649    186.456    186.456    186.456          1
 73.32147   2.904031   477.3523   477.3523   477.3523          1
-725.5028    2.79692  -428.5827          .          0          0
 -466.442   4.039306   1072.864   1072.864   1072.864          1
-258.7264   3.455053   696.3262   696.3262   696.3262          1
-183.3653   2.405105  -278.2602          .          0          0
-112.6872   2.340156  -272.5311          .          0          0
-484.7643   2.213294  -771.4707          .          0          0
-230.8564   3.377198   646.3418   646.3418   646.3418          1
 209.4336    3.74112   1450.553   1450.553   1450.553          1
 235.3144   2.474682   209.9967   209.9967   209.9967          1
 612.8528   3.178061   1290.914   1290.914   1290.914          1
-830.3166   2.368763  -961.5534          .          0          0
-837.5853   3.234819  -102.7662          .          0          0
 1831.281   2.487039    1818.32    1818.32    1818.32          1
 1535.891   3.113675   2149.566   2149.566   2149.566          1
-684.3713    3.68189   497.5192   497.5192   497.5192          1
 829.5759   3.065474    1395.05    1395.05    1395.05          1
 430.5023   2.880522   811.0247   811.0247   811.0247          1
-1018.136   2.815798  -702.3383          .          0          0
-279.5062   4.006416    1226.91    1226.91    1226.91          1
-49.19117    2.82639   277.1984   277.1984   277.1984          1
 933.1782   2.886823   1320.001   1320.001   1320.001          1
-220.2854   3.497898   777.6127   777.6127   777.6127          1
-57.31442   3.624563   1067.248   1067.248   1067.248          1
 37.98462   3.994571   1532.556   1532.556   1532.556          1
-645.2307   2.062836  -1082.395          .          0          0
-447.0799   1.420101  -1526.979          .          0          0
 638.5016   2.385705   524.2068   524.2068   524.2068          1
-.4171108   3.497978   997.5613   997.5613   997.5613          1
 333.8377   3.464779   1298.616   1298.616   1298.616          1
-574.2002   1.895334  -1178.866          .          0          0
-47.86608   4.018333   1470.467   1470.467   1470.467          1
 294.1673   1.587136  -618.6967          .          0          0
 31.88165    2.48933   21.21194   21.21194   21.21194          1
 977.9471   1.812991   290.9386   290.9386   290.9386          1
 680.8751   3.226689   1407.564   1407.564   1407.564          1
 378.9609   2.624071    503.032    503.032    503.032          1
-80.70097   3.558647   977.9464   977.9464   977.9464          1
 1854.676    2.01795   1372.626   1372.626   1372.626          1
 980.9083   2.266896   747.8045   747.8045   747.8045          1
 28.12713   2.966026    494.153    494.153    494.153          1
 600.4497    3.36734   1467.789   1467.789   1467.789          1
 1341.814   1.725231   567.0452   567.0452   567.0452          1
 33.74192    3.15198   685.7221   685.7221   685.7221          1
 832.0533   2.555597   887.6499   887.6499   887.6499          1
 851.3599   3.024334   1375.694   1375.694   1375.694          1
-1299.682   2.333745  -1465.937          .          0          0
  77.9957   3.240273   818.2684   818.2684   818.2684          1
-86.26851   3.574096   987.8272   987.8272   987.8272          1
 1037.221   3.513819    2051.04    2051.04    2051.04          1
 -1310.64   2.044133  -1766.507          .          0          0
 -1616.92   2.247625  -1869.295          .          0          0
 1502.897   2.536846   1539.744   1539.744   1539.744          1
 20.86978   2.536928   57.79748   57.79748   57.79748          1
-1482.816   2.085944  -1896.872          .          0          0
-1732.686   2.388968  -1843.717          .          0          0
 164.2944   2.944357   608.6514   608.6514   608.6514          1
-638.9806   2.740083  -398.8976          .          0          0
 585.3225    1.94287   28.19229   28.19229   28.19229          1
 690.5694   2.589664   780.2336   780.2336   780.2336          1
-178.6693   2.895003   216.3336   216.3336   216.3336          1
-1317.622    3.38246  -435.1625          .          0          0
 861.0387   2.589782   950.8209   950.8209   950.8209          1
-1444.108   2.587086  -1357.023          .          0          0
 1576.263   3.721915   2798.178   2798.178   2798.178          1
-17.15699   3.138185   621.0283   621.0283   621.0283          1
-954.9071   1.635035  -1819.872          .          0          0
 623.0826   3.651366   1774.448   1774.448   1774.448          1
 2302.204   3.074671   2876.874   2876.874   2876.874          1
 1300.825   1.932793   733.6179   733.6179   733.6179          1
